# .PCD v0.7 - Point Cloud Data file format
VERSION 0.7
FIELDS x y z
SIZE 4 4 4
TYPE F F F
COUNT 1 1 1
WIDTH 1559
HEIGHT 1
VIEWPOINT 0 0 0 1 0 0 0
POINTS 1559
DATA ascii
648.32648 0.62546211 704.16296
624.33447 0.62535113 678.1048
412.09116 0.62532538 447.58289
589.92603 0.62469321 640.73297
487.13577 0.62455124 529.09045
890.23438 0.62440115 966.90442
701.88763 0.62437338 762.33691
536.90796 0.62394798 583.14893
310.797 0.62386405 337.5654
495.64133 0.62374538 538.32849
950.54913 0.62353194 1032.4137
669.01337 0.62345344 726.63147
780.06824 0.62337118 847.25055
766.14288 0.62300807 832.12585
969.33667 0.62254322 1052.8191
820.80536 0.62230659 891.49603
1010.3677 0.62228888 1097.3839
634.74048 0.62217873 689.40704
560.0592 0.6221298 608.29395
846.7229 0.6217013 919.64569
830.56213 0.62146968 902.09308
903.70978 0.62121493 981.54034
210.10283 0.62102121 228.20004
682.17297 0.62059808 740.9245
727.96564 0.62059742 790.66077
360.1127 0.62030804 391.12808
246.70369 0.62013823 267.95267
962.37451 0.61998802 1045.2573
976.03046 0.61953324 1060.0895
1002.9502 0.61933714 1089.3275
867.3194 0.6190384 942.01593
336.366 0.61890352 365.33643
787.77692 0.61873424 855.62305
747.81299 0.61870784 812.21759
912.19318 0.61870486 990.75446
719.03894 0.61848772 780.96527
801.78668 0.6181109 870.83929
860.4093 0.61778468 934.5108
602.26971 0.61772108 654.13989
992.35443 0.61698472 1077.8192
521.31854 0.61689401 566.21698
755.69879 0.61688697 820.78241
688.76025 0.61669284 748.07898
740.1156 0.61644036 803.85724
837.89148 0.61637169 910.05365
983.66882 0.61636627 1068.3857
809.20099 0.61612505 878.89233
923.21582 0.61583543 1002.7263
932.33899 0.61550897 1012.6353
895.96204 0.6154722 973.12537
574.07349 0.61513203 623.5152
707.95496 0.61507529 768.92682
942.24432 0.61451483 1023.3936
448.38681 0.61439914 487.00436
882.51196 0.61408973 958.51678
1014.944 0.61408865 1102.3541
852.15582 0.61388612 925.54645
201.26044 0.61366761 218.59624
370.27811 0.61357713 402.16901
640.32416 0.61320865 695.47156
952.73761 0.61317134 1034.7908
659.97479 0.61296678 716.81451
422.22351 0.61261672 458.58783
460.98608 0.61227977 500.6886
403.58438 0.6122039 438.34351
875.25659 0.61177689 950.63672
698.73553 0.61172801 758.91345
795.37964 0.61172009 863.88074
772.67926 0.61126196 839.22516
610.38812 0.61111313 662.9574
513.92712 0.61110312 558.18884
474.15683 0.6110099 514.99371
429.04956 0.61092931 466.00174
733.25696 0.61070848 796.40771
618.98627 0.61063671 672.29608
779.45343 0.61056304 846.58289
385.15692 0.61049765 418.3291
651.25421 0.61048907 707.34296
965.09888 0.61034495 1048.2164
827.39276 0.60993719 898.65082
270.88913 0.60907155 294.22083
890.13654 0.60902917 966.79797
542.53192 0.60902089 589.25739
145.78511 0.60900599 158.34427
843.30194 0.60885954 915.93005
1008.6888 0.60859329 1095.5602
971.88367 0.6085062 1055.5856
317.61493 0.60797465 344.97055
81.709328 0.607822 88.753014
392.25174 0.60781735 426.03494
626.66455 0.60769808 680.63556
915.93048 0.60766602 994.81348
994.46747 0.60698789 1080.1141
936.69897 0.60696816 1017.3706
958.51062 0.60695678 1041.0608
290.9679 0.60694236 316.02869
221.26628 0.60654712 240.32477
815.55731 0.60625172 885.79596
555.45374 0.60620946 603.29193
441.88977 0.60601896 479.94778
786.73169 0.60598993 854.48792
679.35974 0.60538191 737.86896
927.15961 0.60524273 1007.0099
980.91479 0.60522944 1065.3945
726.4577 0.60487175 789.02307
905.12463 0.60477304 983.07715
833.88007 0.60459721 905.69678
482.25281 0.60426825 523.78687
762.0152 0.60422027 827.64264
527.37469 0.60409558 572.79474
507.22137 0.60401076 550.90576
500.25113 0.60384601 543.33514
866.16553 0.60360408 940.7627
582.32727 0.60331935 632.47998
235.6033 0.60322219 255.89641
156.49455 0.60250044 169.97575
1001.6104 0.60214651 1087.8723
568.45551 0.6020633 617.41333
595.83057 0.6020056 647.14606
645.47009 0.6018855 701.06067
943.3678 0.60177553 1024.6139
741.922 0.60176075 805.81909
987.96826 0.60170531 1073.0554
258.40796 0.60166687 280.66489
347.81177 0.60132623 377.76788
710.02063 0.60098797 771.17023
534.06775 0.60092694 580.06415
1015.5336 0.60076988 1102.9946
634.05621 0.60028893 688.66382
881.78687 0.60021251 957.72937
857.32074 0.59994584 931.15625
717.90784 0.59976125 779.73669
808.89911 0.59915453 878.56433
920.27863 0.59915102 999.53632
412.8891 0.59899306 448.44958
801.42511 0.59889358 870.44672
364.3649 0.59802014 395.74649
967.13202 0.59789068 1050.4248
873.30939 0.59774458 948.52185
793.79993 0.5977416 862.16492
891.80255 0.5975439 968.60773
849.95416 0.59744972 923.15527
749.02063 0.59692526 813.52917
842.97266 0.59656143 915.57257
933.18744 0.59649092 1013.5567
588.96875 0.59644312 639.69342
663.47943 0.59639037 720.62103
326.10599 0.59625733 354.19287
672.75031 0.59625643 730.69031
898.50262 0.59581012 975.88483
696.41016 0.59564126 756.38788
378.20004 0.59561181 410.7731
489.38159 0.59535629 531.5296
995.80389 0.59528935 1081.5659
548.73474 0.59480649 595.99432
777.4718 0.59433782 844.43042
655.6048 0.59408092 712.0683
228.03288 0.59388876 247.67404
980.03644 0.59379721 1064.4406
1005.7452 0.5936287 1092.3633
610.92902 0.59359181 663.54492
769.86414 0.59318805 836.16754
283.97308 0.59293741 308.43158
950.50739 0.59279907 1032.3683
603.20349 0.59252566 655.15399
618.62091 0.59219849 671.89911
689.7724 0.59204543 749.17834
456.13693 0.59197009 495.42191
819.19543 0.59163249 889.74756
908.44977 0.59157109 986.6886
926.81061 0.59150463 1006.6307
786.39514 0.591313 854.12225
730.76404 0.59119207 793.7002
972.87817 0.59118795 1056.6655
577.01184 0.59070337 626.7066
827.10437 0.59066802 898.33765
762.36926 0.59065759 828.0274
539.75201 0.59049892 586.23798
625.83215 0.59022111 679.73138
355.65112 0.59005994 386.28232
942.87793 0.58963388 1024.0818
755.58356 0.5893802 820.6571
1015.8492 0.58934963 1103.3373
986.24133 0.58932203 1071.1797
958.78467 0.58910149 1041.3584
682.99176 0.58843851 741.81384
723.09137 0.58838952 785.36682
405.82065 0.58838099 440.7724
431.46674 0.5882858 468.62714
705.44342 0.58825272 766.19897
853.65002 0.58744127 927.16937
523.19318 0.58737785 568.25305
861.27924 0.58725446 935.45575
870.23096 0.58716756 945.17834
641.62769 0.58655071 696.88745
335.27963 0.58650064 364.15649
477.80399 0.58611083 518.95502
966.83966 0.58597672 1050.1072
797.32068 0.58593261 865.98889
496.00519 0.585316 538.72369
184.61284 0.58498526 200.51514
418.767 0.58495092 454.83371
712.19159 0.58478141 773.52808
921.03772 0.58462346 1000.3605
997.11133 0.58460093 1082.9857
736.72437 0.58450872 800.17383
808.59808 0.58450603 878.23761
265.57394 0.58424109 288.44794
300.71671 0.58376205 326.6171
880.91309 0.58376014 956.78033
835.04938 0.58366805 906.96674
371.96506 0.58363837 404.00119
389.68283 0.58343387 423.24472
511.10083 0.58314401 555.11932
1005.3586 0.58294457 1091.9434
749.57678 0.58252525 814.13318
931.61493 0.5823909 1011.8488
953.45239 0.5822475 1035.5669
903.73383 0.58192468 981.56653
397.79831 0.5817309 432.05923
466.18304 0.58157504 506.33313
842.72266 0.58154821 915.3009
563.0614 0.58122134 611.55469
676.15497 0.58114815 734.38818
815.48016 0.5811317 885.71228
889.48621 0.58089447 966.09186
790.82629 0.57977819 858.93506
698.61041 0.5796541 758.77759
772.94904 0.57949996 839.51825
1012.8975 0.57922691 1100.1315
961.65125 0.57906187 1044.4718
977.85516 0.57898384 1062.0713
597.9613 0.57891768 649.46033
89.694 0.5786112 97.424736
534.08337 0.57860416 580.08124
940.40588 0.57826549 1021.3969
780.75684 0.57799387 847.99835
634.85852 0.5777036 689.53522
555.77466 0.57761532 603.6405
343.50076 0.57744235 373.08563
896.12744 0.57732618 973.30518
581.9743 0.57731307 632.09637
989.88776 0.57708585 1075.1401
68.060158 0.57698584 73.929665
591.15216 0.57660282 642.06482
664.17157 0.57647938 721.37268
866.7312 0.57635713 941.3772
650.65161 0.57625908 706.68835
244.44525 0.57599825 265.49979
501.95642 0.5755288 545.18738
617.37207 0.57512182 670.54291
729.80646 0.57484496 792.66028
924.71509 0.57442099 1004.3547
443.71713 0.57428038 481.93253
948.88452 0.57418209 1030.6057
307.66882 0.57402539 334.16785
828.93762 0.5740189 900.32867
717.91772 0.57390434 779.74744
912.9212 0.57367069 991.54523
425.17999 0.57362074 461.79895
996.69061 0.57356894 1082.5289
252.47504 0.57255971 274.22098
489.61292 0.57243645 531.78088
170.59308 0.57235932 185.28821
708.73199 0.572348 769.77081
880.56543 0.57232094 956.40277
972.75739 0.57222396 1056.5343
436.64929 0.57221597 474.25598
320.60553 0.57214296 348.21866
690.8399 0.57209325 750.33783
796.73175 0.57127279 865.34924
931.87097 0.57103157 1012.127
766.80438 0.57067603 832.84436
873.83411 0.5704627 949.09167
573.61353 0.57044905 623.01569
681.76056 0.57000434 740.47644
804.53369 0.56984264 873.82294
671.11792 0.56983596 728.91724
786.4671 0.56982863 854.20056
603.95795 0.56957507 655.97339
966.23352 0.56937462 1049.4489
742.9729 0.56930292 806.96051
641.53662 0.56917357 696.78845
852.70959 0.569121 926.14783
861.14728 0.56892794 935.31226
759.68408 0.56858677 825.11078
543.8446 0.56856328 590.68298
887.62769 0.5685305 964.07318
528.30963 0.56822652 573.81024
1002.5007 0.56818277 1088.8394
843.80188 0.56788206 916.47296
957.84399 0.56786525 1040.3368
410.1582 0.56771088 445.48349
752.15845 0.56740803 816.93726
814.36023 0.56728035 884.49585
1013.6157 0.56697333 1100.9115
987.86261 0.56695938 1072.9406
137.09981 0.56638861 148.91119
365.85382 0.56563562 397.36365
822.73016 0.56561285 893.58667
550.53174 0.56541753 597.94617
565.97595 0.5652144 614.72021
163.86195 0.56514043 177.97755
292.58664 0.56509984 317.7869
455.54697 0.56488222 494.78116
277.61984 0.56484485 301.53119
837.06262 0.56453282 909.15338
629.85846 0.56448543 684.10449
734.78497 0.56424153 798.06757
659.28003 0.56377834 716.05988
979.37354 0.56373149 1063.7203
129.33041 0.56354725 140.47292
353.12701 0.56345659 383.54089
469.86182 0.56320387 510.3287
214.31609 0.56303477 232.77611
586.18695 0.56264335 636.67194
996.83765 0.56199539 1082.6884
699.09045 0.56177479 759.29889
378.9697 0.56140214 411.6091
893.90033 0.56136811 970.88605
520.89771 0.56092465 565.75983
939.04877 0.56087601 1019.9229
901.08221 0.5607872 978.68652
928.92462 0.56063026 1008.9268
791.57361 0.56049085 859.7467
506.75455 0.56049085 550.39874
328.7204 0.56048417 357.03235
596.47076 0.56047541 647.84143
620.70709 0.56018007 674.16504
910.44965 0.56010956 988.86066
714.55896 0.56007063 776.09949
401.71243 0.55997741 436.31039
725.29907 0.55984801 787.76459
970.06885 0.55981386 1053.6144
945.8866 0.55960387 1027.3496
881.67529 0.5593279 957.60828
873.79175 0.55891693 949.04572
798.56787 0.558685 867.34344
386.57114 0.55866277 419.86511
773.2132 0.55863351 839.80518
535.17804 0.55862951 581.27008
646.63263 0.55801237 702.3233
765.90582 0.55774051 831.86835
783.20209 0.55765814 850.65417
1007.6702 0.55741268 1094.454
918.58881 0.55737996 997.70087
706.85925 0.55734825 767.73676
665.67224 0.55722177 723.00269
203.59706 0.5569576 221.13408
678.02258 0.55670726 736.41669
848.56512 0.55655813 921.64648
314.15948 0.55630851 341.21756
478.66406 0.55625278 519.88898
757.26227 0.55611491 822.48053
811.47034 0.5555914 881.3573
986.04132 0.55534238 1070.9625
855.79584 0.55476213 929.49988
829.75397 0.55440646 901.21533
393.77435 0.55436134 427.68869
234.20673 0.5538612 254.37956
195.38402 0.55381423 212.21381
741.43878 0.55367601 805.29425
429.36948 0.55361116 466.34921
579.87305 0.55346447 629.81409
867.57959 0.55314773 942.29852
122.52517 0.55302429 133.08182
336.43176 0.5528174 365.40781
951.26508 0.55270904 1033.191
419.92603 0.5524677 456.09247
572.86957 0.55225265 622.20764
993.06982 0.55213857 1078.5962
840.10193 0.55190557 912.45447
976.7934 0.55182344 1060.9181
961.0451 0.55132866 1043.8136
490.46896 0.55107009 532.71057
690.40796 0.55079222 749.86865
302.90723 0.550574 328.99622
372.08176 0.55043846 404.1279
1002.6319 0.55020934 1088.9818
499.4939 0.55019444 542.51282
439.33249 0.55015826 477.17023
558.03107 0.55006856 606.09131
1011.3406 0.54882193 1098.4406
934.76587 0.54880756 1015.2711
636.08063 0.54862392 690.86261
658.65845 0.54845285 715.38489
613.75519 0.54838443 666.61438
818.72101 0.54804063 889.23224
700.90015 0.5478735 761.26434
733.06293 0.54741681 796.19714
749.81207 0.54723144 814.38861
717.14331 0.54686773 778.90643
884.4436 0.54649323 960.61481
266.19275 0.54641503 289.12009
447.94315 0.54626268 486.52249
913.52454 0.54597098 992.2005
805.80975 0.54595578 875.20892
511.3017 0.54565442 555.33746
601.27765 0.54556769 653.06226
778.79785 0.54553086 845.87079
793.69769 0.54507875 862.05389
920.98712 0.54500556 1000.3056
623.91309 0.54496068 677.64709
941.02478 0.54457957 1022.0689
458.34494 0.54451007 497.82007
846.12012 0.54436296 918.99091
986.08832 0.54435468 1071.0133
875.17303 0.5443297 950.54596
955.99609 0.54418081 1038.3296
972.05127 0.54399133 1055.7676
725.87048 0.54348654 788.38525
412.03653 0.54338896 447.52356
948.07733 0.54335159 1029.7289
524.44879 0.54326171 569.61688
834.11871 0.54313946 905.95593
906.40186 0.54221028 984.46423
467.73318 0.54196149 508.01688
863.34009 0.54182142 937.69391
681.73248 0.5413698 740.44598
545.7876 0.54098743 592.79333
670.66156 0.54093337 728.42163
593.77795 0.54085284 644.91669
891.6051 0.54084706 968.39313
566.9118 0.54073751 615.73682
899.33551 0.54068589 976.78943
756.01044 0.54010105 821.12097
708.14362 0.53993237 769.13159
964.41479 0.53980386 1047.4735
739.81042 0.53979957 803.52576
248.03505 0.53973806 269.39871
930.91626 0.53919452 1011.09
517.80676 0.53912854 562.40283
188.52007 0.53884262 204.75882
787.88092 0.53842515 855.73608
771.8584 0.53833103 838.33368
642.59076 0.53828734 697.93329
828.02142 0.537862 899.33368
342.54333 0.53778249 372.04578
534.35974 0.53769624 580.38135
812.90546 0.53763002 882.91577
220.23589 0.53754115 239.20567
630.40552 0.53742146 684.69867
764.854 0.5373109 830.72589
358.51456 0.53711265 389.39233
997.77094 0.53698134 1083.7023
156.60107 0.53691542 170.09145
852.17316 0.53674853 925.56531
608.77966 0.53660905 661.21045
552.59229 0.535909 600.18414
179.04416 0.53565097 194.46693
574.9632 0.53549194 624.48169
990.74304 0.53536057 1076.0692
1014.4039 0.53523219 1101.7676
911.87 0.53518975 990.40344
983.19739 0.53497571 1067.8737
286.88531 0.53481168 311.59454
433.71933 0.53473514 471.07373
1007.0876 0.53427076 1093.8213
398.32471 0.53360975 432.63083
805.17181 0.53354257 874.51617
321.00546 0.53342217 348.65302
389.03299 0.53320241 422.53891
798.00122 0.53302902 866.72803
696.13751 0.53288382 756.09161
938.92798 0.53283161 1019.7916
714.09961 0.53261185 775.60065
241.2766 0.53236425 262.05826
946.02234 0.53165466 1027.4969
111.65944 0.53157687 121.28072
858.68542 0.53157395 932.63837
895.46991 0.53106278 972.59088
821.80176 0.53064209 892.57825
309.87366 0.53063029 336.56259
651.88531 0.53041643 708.0282
952.84985 0.53026724 1034.9125
474.7821 0.53018498 515.67279
658.97168 0.52939993 715.72498
779.61609 0.52908146 846.75958
922.39838 0.52905369 1001.8387
964.26514 0.5289638 1047.3109
487.95917 0.52878523 529.98468
903.93616 0.52830434 981.78619
427.02072 0.52811384 463.79822
614.87024 0.52797526 667.8255
838.80084 0.52784848 911.04126
881.81982 0.52765495 957.76514
736.70367 0.52761155 800.15131
729.28668 0.52739376 792.09558
558.85437 0.52738857 606.98553
1001.7237 0.52736437 1087.9954
667.82813 0.52705765 725.34412
623.67096 0.52689135 677.38416
931.41809 0.52666056 1011.6349
587.02698 0.52655286 637.58429
790.37152 0.52647728 858.44116
349.92172 0.526357 380.05954
865.21686 0.52635127 939.73248
977.33844 0.52629387 1061.5101
846.5799 0.52623171 919.49036
994.58124 0.52616191 1080.2378
686.78442 0.52600694 745.93311
443.84262 0.52557522 482.06882
810.66644 0.52551109 880.48401
227.6268 0.52548313 247.23299
772.49634 0.52540421 839.02637
510.15262 0.52539688 554.08942
365.20111 0.52520537 396.65475
761.72125 0.52476782 827.32349
405.89264 0.52463716 440.85065
296.8074 0.52446479 322.37109
1009.9058 0.52437806 1096.8823
752.5224 0.52429932 817.3324
601.1377 0.52415317 652.91028
272.14606 0.52368218 295.586
417.09479 0.52342528 453.01749
327.63373 0.52322978 355.85208
986.24011 0.52299637 1071.1782
529.4848 0.52290779 575.08661
872.77124 0.52275932 947.93732
890.19434 0.522668 966.86096
580.1051 0.52248806 630.06628
745.70795 0.52231967 809.93121
702.22705 0.52199543 762.70569
957.45111 0.52173066 1039.9098
676.89856 0.52165079 735.1958
912.42249 0.5210129 991.00342
802.58954 0.52087855 871.71155
970.68884 0.52044618 1054.2877
461.15192 0.52036911 500.8688
720.49139 0.52007067 782.54285
568.66998 0.5191797 617.64636
451.39548 0.51909387 490.27216
494.54916 0.51900631 537.14227
693.3053 0.51886243 753.01544
896.82001 0.51838082 974.05731
254.58255 0.51825738 276.51001
859.05658 0.51810437 933.04163
146.74556 0.5176878 159.38741
538.27112 0.51764965 584.6297
637.91321 0.51744998 692.85291
905.74792 0.51712948 983.75403
918.84857 0.51682377 997.98297
942.29956 0.51678926 1023.4537
607.66693 0.51669794 660.00189
502.31519 0.51667041 545.57709
828.41046 0.51626325 899.7561
994.93311 0.51602453 1080.62
547.83453 0.51597673 595.0166
934.59076 0.51588726 1015.081
522.6601 0.51564723 567.67407
593.89569 0.51545912 645.04462
481.629 0.51529115 523.10944
794.65729 0.51526898 863.09601
787.30048 0.51481241 855.10559
371.52258 0.51476556 403.5206
657.21417 0.51443291 713.8161
780.39795 0.51398277 847.60864
851.38855 0.51396155 924.71307
1015.6019 0.51390123 1103.0686
766.22095 0.51354283 832.21069
813.54022 0.51353657 883.60516
169.98648 0.51342237 184.62936
757.20868 0.5128957 822.42236
925.81219 0.51285797 1005.5463
820.49768 0.5127725 891.16193
1008.717 0.51223028 1095.5909
964.00952 0.51202404 1047.0332
338.6022 0.51199788 367.76517
682.88049 0.51186895 741.69287
739.42841 0.51176029 803.11072
883.99152 0.51173162 960.12396
627.8075 0.5116874 681.87683
975.05823 0.5116837 1059.0333
949.68494 0.51159602 1031.4749
380.31308 0.51159316 413.06812
648.86127 0.51120406 704.7439
467.79105 0.51118612 508.07965
668.01855 0.51090276 725.55103
714.6626 0.51088083 776.21198
515.20734 0.51082021 559.57953
706.42535 0.51069689 767.26532
434.56491 0.51017576 471.99207
864.63397 0.5096218 939.09937
212.33252 0.50957853 230.6217
394.17407 0.50938064 428.1228
957.21082 0.50924712 1039.649
891.95142 0.50921988 968.76929
805.19861 0.50907058 874.54517
1000.1384 0.50886393 1086.2734
982.57196 0.50853026 1067.1942
314.73624 0.5082857 341.84393
773.15137 0.50758386 839.73798
601.26892 0.50750393 653.0528
875.99756 0.50744998 951.44159
746.4624 0.50709862 810.75055
844.04517 0.5069176 916.73743
698.16534 0.5067243 758.29413
938.83734 0.50643831 1019.6931
264.17822 0.50632948 286.93207
833.69305 0.50533682 905.49377
621.37866 0.50502557 674.89453
918.07349 0.50474435 997.14105
732.18353 0.50424016 795.24194
1015.8545 0.50402486 1103.3431
580.40106 0.50355047 630.3877
969.84015 0.5034588 1053.3658
204.73912 0.50342005 222.37445
358.50189 0.50322527 389.3786
280.95267 0.50307834 305.151
910.6626 0.50301576 989.09192
412.92242 0.50289875 448.48584
1005.5098 0.50279337 1092.1075
989.50763 0.5027622 1074.7273
555.97919 0.50247449 603.86279
489.55219 0.50207365 531.71478
858.72363 0.50204343 932.67981
850.32135 0.50197852 923.55402
928.59216 0.50196177 1008.5657
690.33307 0.50187355 749.78729
566.25769 0.50177407 615.02631
903.33624 0.50160491 981.13452
677.99225 0.50158483 736.38348
817.08118 0.50150156 887.45111
441.02283 0.50125372 479.0062
760.354 0.50109154 825.83844
533.89563 0.5009464 579.87732
753.15723 0.50069636 818.02197
824.16669 0.50060576 895.14679
719.92987 0.49977279 781.93292
607.39557 0.49964693 659.70709
304.95108 0.49955487 331.21613
959.6778 0.49944884 1042.3285
948.79321 0.49888968 1030.5063
573.74634 0.49886903 623.16003
509.05536 0.49885154 552.89771
588.97345 0.49882886 639.69849
977.4552 0.49873856 1061.6366
997.7196 0.49838001 1083.6466
658.948 0.49823532 715.69934
635.5387 0.49790585 690.27399
810.37677 0.49778205 880.16925
449.02414 0.49710387 487.69653
423.1579 0.4967522 459.60272
614.62433 0.49656668 667.55847
646.255 0.49640861 701.91333
706.21832 0.49581596 767.04065
796.19672 0.49563193 864.76807
671.72479 0.49562785 729.57648
880.26886 0.49550891 956.08063
896.28998 0.49493113 973.48157
844.74158 0.49472252 917.49371
940.89105 0.49446946 1021.9238
767.60242 0.494295 833.711
966.3869 0.49392977 1049.6152
921.03589 0.49386179 1000.3586
831.63196 0.49382675 903.255
246.46561 0.49381241 267.69409
727.78973 0.49364257 790.4696
712.95789 0.49360049 774.36047
802.89343 0.49310568 872.0415
870.63989 0.49265558 945.6225
343.71442 0.49254051 373.31757
461.80005 0.49253613 501.57272
1003.4217 0.49252522 1089.8397
518.43738 0.4923034 563.08771
1010.4578 0.4922325 1097.4817
696.84534 0.49221212 756.8606
546.94812 0.49217528 594.05389
889.12445 0.49198326 965.69904
984.26837 0.49165809 1069.0369
400.78467 0.49163389 435.30264
135.58565 0.49162531 147.26665
991.29309 0.49158531 1076.6665
911.95935 0.49158433 990.50049
932.70502 0.49140468 1013.0329
350.95062 0.49082652 381.177
856.93921 0.49052435 930.74176
478.22992 0.48977953 519.41748
777.52161 0.48977056 844.48462
864.11713 0.48934069 938.5379
788.73004 0.48894718 856.65839
738.07898 0.48881128 801.64496
163.6161 0.4885813 177.71048
957.45422 0.48852891 1039.9133
385.52072 0.48844013 418.72427
683.60284 0.48796564 742.47754
977.14301 0.48796144 1061.2977
825.24133 0.48777777 896.31409
950.64282 0.48693159 1032.5154
221.10162 0.48686704 240.14597
528.18579 0.4866395 573.67566
654.43494 0.48663116 710.79755
231.84924 0.48641494 251.81906
496.71793 0.48628888 539.49774
905.81604 0.48610106 983.828
366.90063 0.48572865 398.50061
762.23059 0.48556861 827.87665
926.41663 0.48532376 1006.2029
998.10132 0.48502019 1084.0608
631.73553 0.48474687 686.14331
899.07166 0.48467833 976.50269
875.89557 0.48440486 951.33069
188.32242 0.48353735 204.54413
838.15808 0.48347709 910.34308
471.38715 0.48343626 511.98544
335.5224 0.4834089 364.4202
328.25311 0.48340508 356.52487
753.67834 0.48328161 818.58789
417.31979 0.48316601 453.26184
539.88678 0.48257065 586.38428
597.03625 0.48249725 648.45563
940.69604 0.48241323 1021.7121
610.90234 0.48241246 663.51593
848.10651 0.48240671 921.1485
814.18854 0.48238462 884.30939
770.44183 0.48227161 836.79504
731.9339 0.48219079 794.97095
585.89276 0.48216319 636.35248
746.42676 0.48206812 810.71191
564.93872 0.48173243 613.59381
1012.3468 0.48160592 1099.5332
431.30737 0.48157948 468.4541
892.05176 0.48156711 968.87842
806.07715 0.48147783 875.49939
702.57751 0.48137107 763.08636
374.46512 0.48133871 406.71658
989.60571 0.48104838 1074.8335
962.13782 0.48081556 1045.0004
1004.8726 0.48077947 1091.4155
622.56122 0.48075119 676.17871
883.53705 0.47992504 959.63031
709.36401 0.47965863 770.45721
662.37146 0.47954965 719.41748
797.60773 0.47936893 866.3006
854.75336 0.47930408 928.36768
603.81299 0.47930136 655.81604
410.1525 0.47915792 445.47723
917.23444 0.478627 996.2298
688.83087 0.47836584 748.15576
445.24469 0.47812095 483.59171
641.07544 0.47775793 696.28748
487.82999 0.4774887 529.84436
196.25851 0.47742423 213.16362
718.34167 0.47736135 780.20801
909.95929 0.47734621 988.32813
677.90149 0.47729251 736.2851
821.02625 0.47727785 891.73602
669.25397 0.47725675 726.89288
286.18341 0.47725415 310.83221
86.456512 0.47646073 93.908661
505.24512 0.47587571 548.75922
394.56223 0.47585794 428.54437
649.54993 0.47538555 705.49176
978.4267 0.4753705 1062.6921
318.71411 0.4753471 346.1644
784.88153 0.4752813 852.47839
948.36688 0.47510809 1030.0433
257.44824 0.47489181 279.62262
996.16754 0.47425246 1081.9607
512.96008 0.47410521 557.13873
872.84332 0.47405493 948.0155
695.90002 0.47362909 755.83362
552.05774 0.47362265 599.60352
866.03534 0.47318628 940.62128
791.77161 0.47293794 859.96179
578.65204 0.47218865 628.48816
453.12 0.47199193 492.14517
971.13617 0.47181246 1054.7734
761.85138 0.47180623 827.46478
827.84235 0.47167763 899.13916
740.69812 0.4715037 804.48981
836.79962 0.47145912 908.86774
931.78717 0.47141933 1012.0358
987.62231 0.47137257 1072.6796
778.08313 0.47128934 845.09454
811.01471 0.47103035 880.8623
1009.655 0.47100458 1096.6097
570.47046 0.47081637 619.60205
277.87299 0.4707171 301.80615
895.73541 0.4706111 972.87915
955.92902 0.47041658 1038.2567
750.81256 0.47027501 815.47522
524.27094 0.47011429 569.42358
105.25784 0.46956542 114.32809
859.44293 0.46949795 933.46118
155.81296 0.46948999 169.23547
923.42535 0.46947008 1002.9539
941.72778 0.46938947 1022.8326
534.18378 0.46909586 580.19019
656.86865 0.46898898 713.4408
463.87805 0.4688884 503.82974
76.219498 0.4688282 82.790863
769.24213 0.46858832 835.49194
61.375134 0.46811968 66.669785
885.4223 0.46804896 961.67792
964.79358 0.46732941 1047.8848
1002.3931 0.46727553 1088.7224
300.11969 0.46716186 325.96869
481.21927 0.46711245 522.66437
725.96558 0.46684226 788.4884
499.06137 0.46625921 542.04297
292.87033 0.46621153 318.09491
901.92108 0.46572754 979.5976
630.22003 0.46542633 684.49719
360.43695 0.46506122 391.48022
820.10046 0.46503833 890.73041
979.1626 0.46501783 1063.4915
909.39484 0.46480495 987.71509
852.06183 0.46470901 925.4444
681.8161 0.46417412 740.5368
586.76642 0.46416354 637.30145
598.22046 0.46400085 649.74182
562.79767 0.46377778 611.26825
672.55402 0.46374765 730.47711
644.70172 0.4637123 700.22632
542.66541 0.46360072 589.40222
798.27338 0.46351179 867.0235
842.53479 0.46343067 915.09705
787.09052 0.46289873 854.8775
123.50649 0.46261981 134.1476
436.27081 0.46245754 473.84497
876.96051 0.46233404 952.48737
717.73456 0.46231541 779.54877
637.07324 0.46198198 691.94073
345.79312 0.46161792 375.57538
972.96417 0.46083942 1056.759
1015.3143 0.46066985 1102.7565
423.23154 0.45990932 459.68262
621.28296 0.45968524 674.79034
758.57666 0.45938388 823.90808
954.93506 0.45924789 1037.1772
472.25031 0.45900771 512.92303
696.15375 0.45899814 756.10925
915.71069 0.45896354 994.57489
893.47375 0.45892981 970.42285
612.52594 0.45884785 665.27924
933.73694 0.45878637 1014.1534
174.67545 0.45868379 189.72205
269.95941 0.4586741 293.21103
861.99725 0.4586665 936.23541
926.4245 0.45865479 1006.2113
779.14197 0.45859566 846.24457
705.94653 0.45827544 766.74536
946.17853 0.45825949 1027.6665
812.99634 0.45820004 883.01453
413.52188 0.45798984 449.13678
737.46484 0.45754758 800.97815
250.97041 0.45750618 272.58685
1007.6625 0.45738569 1094.4457
745.49176 0.45717373 809.69629
312.16379 0.4569028 339.04996
399.82877 0.45646292 434.2645
181.58386 0.45631146 197.22536
995.46606 0.45580098 1081.1987
883.18091 0.45533675 959.24335
331.98792 0.45518708 360.58127
966.75842 0.45513734 1050.0189
552.29883 0.45474949 599.86536
446.06305 0.45460984 484.48044
662.15735 0.45454755 719.185
506.40576 0.4542779 550.0199
981.35815 0.45425925 1065.8759
578.30469 0.45421073 628.11084
689.69769 0.45402834 749.09717
385.01221 0.45391271 418.17191
908.57324 0.45328087 986.82269
729.16663 0.45317748 791.96509
530.4776 0.452694 576.16486
492.74976 0.45245507 535.18787
848.19543 0.45232671 921.245
828.99799 0.45227522 900.39423
768.08563 0.4521912 834.23584
569.77936 0.4519152 618.85138
870.05481 0.45185101 944.98682
604.62372 0.45120072 656.69647
485.92654 0.45114741 527.77698
901.84113 0.45112395 979.5108
752.22546 0.45095828 817.01001
226.34763 0.45080888 245.84373
959.18146 0.45072827 1041.7894
988.59625 0.45064917 1073.7374
950.89618 0.4502157 1032.7905
1001.139 0.45011696 1087.3605
459.91583 0.45006698 499.52628
856.03149 0.45000777 929.75592
837.80609 0.4499779 909.96088
1015.045 0.44997153 1102.4644
339.04163 0.44974083 368.24243
974.06342 0.4496859 1057.953
785.5188 0.44953862 853.17053
720.53619 0.44936571 782.59155
938.47089 0.44874042 1019.2953
920.88739 0.44858783 1000.1974
929.71594 0.44830492 1009.7861
712.45825 0.44812155 773.81775
595.46027 0.44796756 646.74371
802.85211 0.44777074 871.99658
237.48793 0.44714791 257.94336
545.83337 0.44701424 592.84296
893.30493 0.44662419 970.2395
669.17633 0.44624507 726.80865
629.5965 0.44621497 683.81995
478.56909 0.44619527 519.78589
862.75452 0.44612855 937.05786
452.69098 0.4460223 491.67914
759.60382 0.44596243 825.02374
681.54059 0.44572809 740.23749
778.97211 0.4454816 846.05994
559.14032 0.44546992 607.29608
523.58362 0.44512659 568.67706
537.41718 0.44499201 583.70215
515.52905 0.44490239 559.92889
796.07056 0.44468123 864.6311
366.53238 0.44459698 398.10065
880.2738 0.44452453 956.086
652.89386 0.44396973 709.12378
393.40131 0.44392857 427.28351
967.19012 0.44375652 1050.4875
817.65649 0.44366968 888.07593
588.31104 0.44359833 638.97894
704.35168 0.44357333 765.01312
696.54218 0.44348875 756.53113
979.85828 0.44329777 1064.2468
214.16338 0.44303882 232.61024
407.73401 0.44294661 442.85052
945.85266 0.44290054 1027.3125
738.6474 0.44286746 802.26239
323.97528 0.44250816 351.87863
636.19495 0.44184196 690.98669
440.07001 0.44158047 477.97131
355.76642 0.44155222 386.40747
498.45123 0.44103336 541.38037
900.2002 0.44024867 977.72845
988.97253 0.44021401 1074.1459
960.52136 0.43998668 1043.2445
872.3172 0.43987927 947.44434
846.76404 0.43984851 919.69025
887.13092 0.43973789 963.53363
418.28397 0.43966624 454.30908
772.51788 0.43962467 839.04987
998.67981 0.43924889 1084.6893
263.17935 0.43924415 285.84711
662.21039 0.43887141 719.24268
832.61353 0.43854362 904.32104
611.14496 0.4383423 663.77942
130.30768 0.43824393 141.53429
377.42477 0.43811083 409.93109
824.93927 0.43800479 895.9859
1005.4054 0.43798298 1091.9943
283.24826 0.43790379 307.64429
1012.6809 0.43789604 1099.8961
855.40356 0.43788186 929.07391
952.75916 0.43779856 1034.814
728.03033 0.43774873 790.73114
839.82391 0.43756714 912.15253
914.7486 0.43749878 993.52997
749.53821 0.43741581 814.09119
907.85394 0.43707639 986.0415
972.5061 0.43707204 1056.2615
565.67438 0.43706781 614.39288
788.68457 0.43688253 856.60895
811.60712 0.43663734 881.50555
204.7422 0.43588731 222.37781
932.422 0.4356395 1012.7254
687.74182 0.43552634 746.9729
275.55325 0.43547842 299.28665
620.97589 0.43529072 674.45703
146.76007 0.43527058 159.40317
675.14343 0.4338896 733.28955
470.21924 0.43385398 510.71698
717.89105 0.43367127 779.71857
603.53363 0.43357334 655.51245
979.23541 0.43247148 1063.5704
939.13843 0.43231088 1020.0202
923.24329 0.43229958 1002.7561
505.19775 0.4322468 548.70789
742.83569 0.43220311 806.81146
946.08832 0.43188936 1027.5685
757.88153 0.43186101 823.15314
819.02289 0.43167326 889.56006
800.01135 0.43153968 868.91119
863.36353 0.43122491 937.71954
429.61075 0.43036026 466.61139
573.89734 0.43027404 623.32397
963.50842 0.43007258 1046.4889
592.23193 0.42963821 643.23749
447.50943 0.42938471 486.05139
643.26385 0.42919329 698.66449
115.55881 0.42883849 125.51574
584.28711 0.42871743 634.60846
956.32788 0.42855152 1038.6901
765.33051 0.42849177 831.24347
710.1684 0.42829055 771.33087
527.19843 0.42810315 572.60315
733.30194 0.42809734 796.4566
886.51331 0.42797363 962.86298
306.20389 0.42785802 332.57684
1014.8608 0.42780623 1102.2639
872.14368 0.42775872 947.25562
901.18854 0.42772335 978.80194
806.92511 0.42746887 876.42029
290.17258 0.42742807 315.16492
987.66449 0.42729193 1072.7255
628.06702 0.42705435 682.15881
68.58342 0.42704388 74.497925
462.93497 0.426882 502.80539
878.91956 0.42671973 954.61523
783.21564 0.42654705 850.66895
316.83188 0.42652518 344.12003
558.43842 0.42651847 606.53369
399.02823 0.42649341 433.39502
651.55939 0.42645895 707.67426
348.92651 0.42604929 378.97858
996.17773 0.42599091 1081.9718
698.33734 0.42593482 758.48065
914.45734 0.42593125 993.21356
837.8761 0.42587385 910.03705
723.88965 0.42551631 786.23376
773.26465 0.42548916 839.86096
1004.6375 0.42544147 1091.1599
193.10706 0.4249838 209.74075
361.64127 0.42484018 392.78836
520.09528 0.42474052 564.88843
973.99982 0.42473018 1057.8838
669.61462 0.42468312 727.28448
636.67377 0.42439476 691.50671
928.11377 0.42424262 1008.0461
854.8009 0.42392984 928.41931
492.53317 0.42372727 534.95264
893.10339 0.42355427 970.02045
539.84961 0.42347264 586.34393
659.22675 0.42325464 716.00195
485.27948 0.42280927 527.07428
823.89587 0.42280638 894.85266
298.87527 0.42235219 324.61707
981.28589 0.42209542 1065.7975
946.99866 0.42120695 1028.5571
242.82753 0.4211925 263.74277
610.05054 0.42111856 662.5907
690.09424 0.42109409 749.52795
95.075394 0.42091829 103.26927
332.6235 0.42089954 361.27164
940.06238 0.42081597 1021.0237
370.90103 0.42070925 402.84555
921.35272 0.42049435 1000.7028
139.40065 0.41979855 151.41011
965.53448 0.41978619 1048.6893
906.77832 0.41940942 984.87311
682.76642 0.41940269 741.56897
410.14749 0.41937396 445.47189
422.45557 0.41919532 458.8399
438.26141 0.41867664 476.00696
813.94427 0.41866222 884.04401
847.90155 0.41852361 920.92584
453.84338 0.41847023 492.93085
745.37793 0.41804764 809.57269
599.82251 0.41767311 651.48181
718.09467 0.41752964 779.93976
796.63599 0.41711965 865.24518
269.50299 0.41663328 292.71533
993.28784 0.41663173 1078.833
958.03149 0.41650853 1040.5403
568.47217 0.41648048 617.43152
761.55975 0.41619238 827.14807
768.52051 0.41614133 834.70837
886.48236 0.41599539 962.82922
551.9577 0.41595501 599.49487
737.22321 0.41569501 800.7157
872.48956 0.41565368 947.63147
704.81812 0.41497752 765.5199
501.90265 0.41484225 545.12897
1007.9548 0.41480336 1094.7633
160.19833 0.41477937 173.99844
879.66492 0.41467571 955.42462
622.62561 0.4143447 676.24878
900.44141 0.41428477 977.99054
973.88239 0.41415045 1057.7562
782.20959 0.41383296 849.57635
862.38892 0.41344234 936.66083
932.15454 0.41335598 1012.4348
827.98242 0.41292751 899.29114
914.36389 0.41264379 993.11218
511.45856 0.41236317 555.50787
588.56964 0.41234881 639.25989
803.81458 0.412211 873.04193
982.6283 0.41210753 1067.2555
754.60822 0.41194001 819.59778
666.01001 0.41176856 723.36932
855.19342 0.41163817 928.84564
819.48322 0.41161498 890.06006
387.56613 0.41140544 420.9458
839.54608 0.41111156 911.85071
925.24536 0.41087857 1004.9305
949.1759 0.41021389 1030.9221
696.46246 0.41012093 756.44446
893.48584 0.40950748 970.43591
674.0871 0.4089582 732.14215
472.32053 0.40875909 512.99927
529.75452 0.40863588 575.37946
1015.4515 0.40855187 1102.9055
789.84326 0.40836594 857.86743
723.77478 0.40769714 786.10889
1002.5642 0.40766713 1088.9082
378.98761 0.40757558 411.62851
218.56474 0.40743735 237.39059
639.0755 0.40695348 694.1153
575.69067 0.40622097 625.27161
464.9848 0.40609205 505.03174
252.21057 0.40595192 273.93387
605.33008 0.40589407 657.46375
938.24481 0.40522555 1019.0497
686.3028 0.40454152 745.41003
537.34045 0.40437433 583.61871
956.42188 0.40430346 1038.7921
479.18549 0.40418369 520.45532
886.71161 0.40413329 963.07819
811.8006 0.40405709 881.71576
341.4736 0.4038974 370.88394
833.56897 0.40385991 905.35889
710.02191 0.40371776 771.17175
777.54413 0.40348515 844.50891
183.66563 0.40344191 199.48636
629.70129 0.40340221 683.93359
770.73169 0.40335077 837.11005
558.84796 0.40322357 606.97852
740.76056 0.40253666 804.5575
873.15393 0.40231481 948.35291
433.07288 0.4022077 470.37161
660.10071 0.40219384 716.95129
900.25482 0.40211999 977.78784
747.80096 0.4020749 812.20435
261.5636 0.40179911 284.09222
763.28302 0.4017176 829.01965
987.77844 0.4014124 1072.8491
486.84665 0.40121627 528.77649
396.29514 0.40119883 430.42648
324.80914 0.40100366 352.7843
845.50079 0.40095353 918.3183
702.04388 0.40094355 762.50677
236.14677 0.400644 256.48666
996.41406 0.40024635 1082.2283
730.56934 0.40014544 793.48877
651.70264 0.40009123 707.8299
594.91724 0.40007856 646.15405
784.11322 0.40007639 851.6438
1007.7093 0.40001625 1094.4966
583.85577 0.39995584 634.14008
921.74658 0.39993367 1001.1305
980.47253 0.39972857 1064.9139
880.01831 0.39963111 955.80853
522.92065 0.39958605 567.95697
971.37891 0.39893597 1055.0371
566.03156 0.39878199 614.78082
962.14032 0.39855841 1045.0031
1014.9114 0.39829242 1102.3188
441.28793 0.39812008 479.29413
309.97162 0.39779261 336.66898
854.57635 0.3977049 928.17548
798.04242 0.3976469 866.77271
929.28467 0.39760289 1009.3178
862.83429 0.39749476 937.14459
458.31195 0.39749303 497.78427
913.4859 0.39746884 992.15845
623.02087 0.3970291 676.6781
943.77777 0.39701983 1025.059
823.77612 0.39683825 894.72266
494.50397 0.39662653 537.0932
757.04236 0.39647448 822.24164
666.91852 0.39594287 724.35626
515.3797 0.39577812 559.76678
692.74017 0.39567032 752.40167
806.237 0.39564335 875.67303
152.74425 0.3955836 165.90257
406.30426 0.39542711 441.29764
422.59183 0.39528769 458.98788
550.88898 0.39459205 598.33423
449.61954 0.39449266 488.34329
1002.04 0.39377972 1088.339
955.90833 0.39321819 1038.2341
291.61862 0.39321119 316.7355
275.31522 0.39318806 299.02814
889.45532 0.39299718 966.05829
675.46924 0.39294818 733.64331
714.6441 0.3926591 776.19202
504.01123 0.39252776 547.41913
543.71167 0.3924239 590.53857
830.05389 0.39153251 901.5412
615.08978 0.39141747 668.06396
984.60242 0.39131165 1069.3997
643.01843 0.39086854 698.39789
907.06635 0.39081964 985.18597
735.85632 0.39063832 799.23096
414.51068 0.39059392 450.21082
812.82544 0.39052245 882.82886
873.52423 0.39047346 948.75507
635.07874 0.39002207 689.77435
977.71948 0.38992378 1061.924
370.36282 0.38987157 402.26093
849.68964 0.38875741 922.86774
532.75665 0.38858438 578.64001
748.87573 0.38845095 813.37164
1009.3882 0.38837963 1096.3198
773.09949 0.38831654 839.68176
302.3877 0.38821805 328.43195
284.49442 0.38808244 308.99774
970.11334 0.38803264 1053.6626
359.22794 0.38791111 390.16718
603.64502 0.38781375 655.63342
881.82727 0.38733324 957.77332
920.58887 0.38718641 999.87311
935.17737 0.38713223 1015.718
720.99872 0.38693562 783.09375
657.13684 0.38685283 713.73218
837.45557 0.38659313 909.5802
686.30682 0.38650778 745.41437
334.9512 0.38632053 363.7998
317.42685 0.3862806 344.7662
992.63568 0.38623038 1078.1245
765.88391 0.38563591 831.8446
791.70703 0.38471422 859.8916
856.71887 0.3845855 930.50256
703.37903 0.38409194 763.95691
943.08374 0.38393793 1024.3053
779.56384 0.38367403 846.7027
896.5083 0.38351652 973.71857
472.70181 0.38332871 513.41333
951.29944 0.38281798 1033.2284
958.4787 0.38244227 1041.026
555.73639 0.38178831 603.599
479.93594 0.3816421 521.27045
758.65723 0.38129103 823.99548
627.58459 0.38125354 681.63483
981.53217 0.38119084 1066.0648
351.79648 0.38118035 382.0957
912.29608 0.38117084 990.86621
510.34158 0.38089457 554.29468
245.48396 0.38067767 266.62796
798.55762 0.38057122 867.33228
816.74451 0.38046083 887.08545
710.86414 0.38042605 772.08643
585.89447 0.38039955 636.35431
571.63306 0.38021606 620.86469
889.63416 0.38005483 966.25238
927.55243 0.37983921 1007.4363
679.36993 0.37972552 737.88007
174.86473 0.37958336 189.92767
825.24896 0.37946549 896.32245
843.93365 0.37944907 916.61609
1015.3364 0.37929982 1102.7802
562.92413 0.37864998 611.4057
667.94885 0.37863895 725.47528
524.1676 0.37841263 569.3114
741.70813 0.37828359 805.58679
732.13483 0.37821057 795.18915
1003.6577 0.37796578 1090.0959
620.69092 0.37794131 674.14746
973.97461 0.37780797 1057.8566
428.79758 0.37684807 465.72815
394.34918 0.37665522 428.31302
611.36658 0.37641972 664.02002
464.39722 0.37626305 504.39362
493.17465 0.37613454 535.64929
877.802 0.37612629 953.40125
965.96527 0.37609327 1049.1575
579.21332 0.37590617 629.09778
597.77008 0.37580055 649.25256
517.0426 0.37577209 561.57275
806.40283 0.37573576 875.85327
935.68085 0.37492153 1016.2649
386.26166 0.37444809 419.52899
229.65952 0.37421644 249.44075
500.79898 0.37371761 543.93024
997.4837 0.37368116 1083.3901
900.28955 0.37363333 977.82556
945.81409 0.3732383 1027.2706
866.73401 0.37323749 941.38037
439.21906 0.37320983 477.04706
642.35321 0.37274003 697.67529
784.21698 0.37266007 851.75659
773.27484 0.37251464 839.87213
420.63272 0.37221447 456.86008
654.44092 0.37206355 710.80402
858.59125 0.37205455 932.53613
447.54611 0.37203345 486.09125
537.94641 0.37202406 584.27692
907.12341 0.37198424 985.24786
189.39844 0.37152514 205.71277
752.96521 0.37109184 817.81348
1009.0547 0.37073082 1095.9578
485.85669 0.3704972 527.70117
634.71924 0.37019923 689.38391
686.43414 0.37014186 745.55261
55.239613 0.37011248 60.006828
953.64752 0.37010607 1035.7787
457.34949 0.37001976 496.73889
792.7948 0.36997426 861.07306
990.24139 0.36987522 1075.5242
345.15897 0.36964241 374.88654
923.40393 0.3694804 1002.9307
109.16809 0.36928508 118.57491
982.81354 0.36884582 1067.4568
837.85559 0.36876932 910.01477
695.05634 0.36876205 754.9173
531.20288 0.36872941 576.95264
892.18561 0.3683922 969.02374
673.03693 0.36792505 731.00159
549.92505 0.36784995 597.28711
759.93933 0.36774346 825.388
852.172 0.36736739 925.56396
916.09363 0.3671605 994.99091
813.67017 0.36696312 883.74634
830.58948 0.36683518 902.12268
200.8644 0.36665809 218.16608
962.80316 0.3664957 1045.7229
881.98572 0.36626631 957.94531
715.85895 0.36620209 777.51141
735.64716 0.36524341 799.00385
871.58917 0.36509189 946.65356
209.20605 0.36483943 227.22604
743.29425 0.3646735 807.30933
373.88995 0.36454791 406.09186
252.76201 0.36436057 274.53268
937.30042 0.36390474 1018.0238
661.58923 0.36373389 718.56812
592.61737 0.36361858 643.65619
766.67828 0.36323521 832.70728
976.80725 0.36306643 1060.9331
557.1037 0.36275113 605.08392
648.25262 0.36258978 704.08276
326.51962 0.36257741 354.64212
1004.6263 0.36255327 1091.1479
260.30289 0.36241761 282.72296
400.93118 0.36237764 435.46182
969.38593 0.36220813 1052.8726
928.48871 0.36210161 1008.4532
806.30157 0.36202031 875.7431
724.14563 0.362003 786.51178
619.64008 0.36182705 673.0061
607.97015 0.36159092 660.33118
508.65027 0.36144781 552.45776
1013.671 0.36131907 1100.9717
899.02618 0.36129069 976.45349
679.67554 0.36108562 738.21185
357.3244 0.36061507 388.09964
797.75031 0.35994244 866.45544
907.78107 0.35979789 985.96216
986.96869 0.35970333 1071.9696
627.3194 0.3594797 681.34674
709.21649 0.35916471 770.29688
524.9527 0.35897771 570.16406
413.91147 0.35882515 449.55994
776.67194 0.35859421 843.56158
580.06451 0.35856494 630.02209
841.4693 0.35820594 913.93945
433.98874 0.35793453 471.36627
824.09631 0.35763597 895.07043
877.02399 0.35740784 952.55634
600.13202 0.35736603 651.81812
997.10547 0.3571327 1082.9792
472.27661 0.35697877 512.95154
892.23059 0.35695609 969.07251
856.61609 0.35690707 930.39087
292.23074 0.35688987 317.40033
543.59833 0.35653993 590.41553
701.03326 0.35630807 761.40906
864.01215 0.35623527 938.42395
564.13251 0.35570425 612.71808
955.63031 0.35536042 1037.9324
517.8111 0.35518998 562.40741
816.30939 0.35516557 886.61298
496.24573 0.35500467 538.9848
571.76782 0.35488001 621.01105
655.03711 0.35469371 711.4516
216.27434 0.35441843 234.90295
464.80585 0.35422978 504.83734
760.8468 0.35393247 826.37378
314.72696 0.3537775 341.8338
833.52173 0.35376364 905.30768
974.84186 0.35322994 1058.7985
239.76665 0.35277387 260.41827
692.95148 0.35241759 752.63123
913.49652 0.35236785 992.1701
350.61072 0.35227653 380.80786
126.90455 0.35227227 137.8382
364.6879 0.35213244 396.09726
452.42087 0.35210553 491.38577
673.05139 0.35204241 731.01709
945.43225 0.35180712 1026.8561
925.84802 0.351625 1005.5852
394.76144 0.35135254 428.7608
1003.6724 0.35125616 1090.1119
299.89325 0.35123253 325.72266
336.64404 0.35077351 365.63843
1011.9411 0.35062212 1099.0928
740.88422 0.35041302 804.69196
938.43622 0.35022673 1019.2576
870.05426 0.35013145 944.98633
882.76605 0.34982911 958.79291
785.56952 0.34981984 853.22552
136.76091 0.34974027 148.54308
665.60229 0.34973207 722.9267
732.00958 0.34939972 795.05298
486.83038 0.34930825 528.75867
768.25244 0.34913877 834.41718
224.05533 0.3491061 243.35396
809.35156 0.34895942 879.05585
850.46588 0.3486602 923.71094
478.85962 0.34828481 520.1015
686.27686 0.34805357 745.38177
425.13083 0.34782761 461.74561
642.65796 0.34778896 698.00623
748.00818 0.34748331 812.42944
381.85199 0.34731576 414.73959
960.60822 0.34661219 1043.3389
612.90399 0.34645844 665.68988
276.31647 0.34622875 300.1156
826.80731 0.34618965 898.01501
969.25659 0.34592867 1052.7322
792.76849 0.34590808 861.04449
445.59314 0.34588528 483.97009
800.51184 0.34580716 869.45477
406.44519 0.34567434 441.45081
931.94177 0.34544408 1012.2037
905.53662 0.34514403 983.52448
755.83746 0.34494418 820.93311
635.91846 0.34493136 690.68628
712.03668 0.34456646 773.35992
897.92749 0.34407061 975.26013
843.18182 0.34403613 915.79956
980.38367 0.34401819 1064.8174
538.61157 0.34396872 584.99927
953.85223 0.34390536 1036.0012
530.06628 0.34312528 575.71808
988.66992 0.34296024 1073.8174
704.8493 0.34280953 765.55359
1000.4067 0.34214905 1086.5649
679.84698 0.34208035 738.39813
620.36353 0.34190768 673.79187
887.8642 0.34158233 964.33014
1015.6451 0.34156796 1103.1156
774.7865 0.34153268 841.51392
856.95709 0.34138131 930.76123
833.03595 0.34137592 904.77985
864.25751 0.34125286 938.69037
877.31842 0.34088358 952.87604
168.61748 0.34060594 183.14247
659.37891 0.3402679 716.16736
557.12573 0.34004021 605.10791
438.60132 0.33966547 476.37613
697.98383 0.33962935 758.09705
600.88739 0.33940431 652.63837
916.16052 0.33909497 995.06342
458.15359 0.33901891 497.61218
550.35931 0.33893543 597.75885
501.36066 0.33888766 544.54041
181.26228 0.3378832 196.87604
947.0733 0.33788174 1028.6383
564.28674 0.33741838 612.88568
737.4585 0.33739758 800.97119
233.43977 0.33733195 253.54654
628.80762 0.33725062 682.96313
973.42194 0.33696455 1057.2562
762.36646 0.33692786 828.02429
721.20135 0.33689657 783.31396
370.52887 0.3368634 402.44128
118.24449 0.33641589 128.4326
521.69067 0.33631733 566.62115
84.370636 0.33625475 91.643303
964.91406 0.33614111 1048.0155
576.6571 0.33598107 626.32141
813.38147 0.33589518 883.43286
937.22363 0.33582109 1017.9406
909.14905 0.33578435 987.448
284.67355 0.33475631 309.19232
593.4104 0.33471945 644.51758
995.22339 0.33465144 1080.9351
729.76746 0.33463547 792.61768
796.38171 0.33438963 864.96899
803.39581 0.33414108 872.58716
73.682793 0.33413231 80.035934
746.7851 0.33402139 811.10107
387.65005 0.33367443 421.03696
956.10681 0.33353198 1038.45
342.10507 0.33326185 371.5697
851.81238 0.33277902 925.17358
647.57739 0.33271986 703.34943
671.44403 0.33267936 729.27155
471.61893 0.3324852 512.23718
820.38354 0.33232802 891.0379
923.6134 0.33225489 1003.1582
412.96124 0.33219823 448.52786
1003.3542 0.33212548 1089.7662
584.36218 0.3319504 634.69
753.9422 0.33185378 818.87451
840.56128 0.33178627 912.95343
1011.8702 0.33176678 1099.0156
685.33844 0.33165121 744.36255
983.72766 0.33087635 1068.4495
890.40979 0.33063361 967.09497
268.14532 0.33056027 291.24081
782.32971 0.3305065 849.70679
898.18915 0.33032823 975.54425
868.24976 0.33007386 943.02655
157.12492 0.3298814 170.66043
398.17041 0.3295216 432.46332
931.75299 0.329438 1011.9987
789.38281 0.3294284 857.36731
883.44385 0.32924101 959.52899
860.5116 0.32923001 934.62177
320.39307 0.3291741 347.98795
512.7168 0.3289434 556.87439
635.67487 0.32865036 690.42188
772.78687 0.32733762 839.3421
829.47021 0.32681936 900.90717
605.84534 0.32664764 658.02332
714.87146 0.32637721 776.4389
463.77908 0.32616666 503.72217
944.29694 0.32592741 1025.623
707.263 0.32583013 768.17517
654.99329 0.32578292 711.40393
808.96246 0.32569212 878.63312
662.12762 0.32557914 719.15283
328.10699 0.32506511 356.36618
989.79382 0.32506117 1075.0378
998.28595 0.3250252 1084.2615
615.11859 0.32502091 668.09521
147.09619 0.32474536 159.76822
493.55579 0.32463995 536.06323
951.47223 0.32455018 1033.4159
569.31165 0.32441434 618.34326
764.73688 0.32440293 830.59882
533.35828 0.32425347 579.29358
967.1582 0.32424966 1050.453
303.84442 0.32420292 330.01413
252.22128 0.3239682 273.9454
622.44806 0.32345712 676.05591
725.01093 0.32341298 787.45154
908.97253 0.32329714 987.25635
918.39246 0.32318798 997.48755
959.90009 0.32315806 1042.5696
480.12051 0.32302582 521.47095
352.65887 0.32297853 383.03238
974.25452 0.32292286 1058.1603
733.90625 0.32256538 797.11298
378.51202 0.32196948 411.112
544.948 0.32186967 591.88147
925.8045 0.32169703 1005.538
1012.8871 0.32154799 1100.1202
1005.9694 0.32152086 1092.6068
878.18597 0.32134742 953.81836
849.40179 0.32089263 922.55518
980.97119 0.32069641 1065.4558
800.28394 0.32069144 869.20734
598.64758 0.32062393 650.20575
405.97485 0.31992826 440.93991
820.91376 0.3195807 891.61383
429.75143 0.31954119 466.76401
938.6427 0.31952521 1019.4817
643.58325 0.31938607 699.01135
